ply
format ascii 1.0
element vertex 687
property float x
property float y
property float z
property uchar blue
property uchar green
property uchar red
end_header
-1.27357757091522217 -64.4618301391601562 0.423387736082077026 0 255 0
-1.27358222007751465 -64.4618377685546875 0.42339557409286499 0 255 0
-1.37262988090515137 -64.4651718139648438 0.426580280065536499 0 255 0
-1.48131978511810303 -64.4692840576171875 0.430130362510681152 0 255 0
-1.48131978511810303 -64.4692840576171875 0.430130362510681152 0 255 0
-1.59147810935974121 -64.4713134765625 0.433276742696762085 0 255 0
-1.6929020881652832 -64.4760589599609375 0.437045782804489136 0 255 0
-1.78898656368255615 -64.48193359375 0.439753323793411255 0 255 0
-1.78898656368255615 -64.48193359375 0.439753323793411255 0 255 0
-1.89153587818145752 -64.4851455688476562 0.443028897047042847 0 255 0
-1.9994274377822876 -64.4889068603515625 0.446800261735916138 0 255 0
-1.9994274377822876 -64.4889068603515625 0.446800261735916138 0 255 0
-2.10810995101928711 -64.4935531616210938 0.449708044528961182 0 255 0
-2.21272850036621094 -64.4971923828125 0.452712535858154297 0 255 0
-2.31313848495483398 -64.5038299560546875 0.455116927623748779 0 255 0
-2.31313848495483398 -64.5038299560546875 0.455116927623748779 0 255 0
-2.4157264232635498 -64.50836181640625 0.458694040775299072 0 255 0
-2.521209716796875 -64.5123748779296875 0.461885690689086914 0 255 0
-2.521209716796875 -64.5123748779296875 0.461885690689086914 0 255 0
-2.62767624855041504 -64.518798828125 0.464283764362335205 0 255 0
-2.73150110244750977 -64.521881103515625 0.46667131781578064 0 255 0
-2.83346772193908691 -64.52923583984375 0.469057440757751465 0 255 0
-2.83346772193908691 -64.52923583984375 0.469057440757751465 0 255 0
-2.93422532081604004 -64.5348663330078125 0.472090184688568115 0 255 0
-3.04015588760375977 -64.5398788452148438 0.473992794752120972 0 255 0
-3.04015588760375977 -64.5398788452148438 0.473992794752120972 0 255 0
-3.14872097969055176 -64.5473403930664062 0.476051598787307739 0 255 0
-3.25271296501159668 -64.5516815185546875 0.478033483028411865 0 255 0
-3.35519051551818848 -64.5584259033203125 0.480911880731582642 0 255 0
-3.35519051551818848 -64.5584259033203125 0.480911880731582642 0 255 0
-3.45480561256408691 -64.56597900390625 0.482932627201080322 0 255 0
-3.55791664123535156 -64.572723388671875 0.48479849100112915 0 255 0
-3.55791664123535156 -64.572723388671875 0.48479849100112915 0 255 0
-3.66160488128662109 -64.5786895751953125 0.487702280282974243 0 255 0
-3.76223134994506836 -64.5861282348632812 0.490118950605392456 0 255 0
-3.86506342887878418 -64.5923538208007812 0.493263900279998779 0 255 0
-3.86506342887878418 -64.5923538208007812 0.493263900279998779 0 255 0
-3.97369766235351562 -64.601654052734375 0.495676219463348389 0 255 0
-4.08904504776000977 -64.605804443359375 0.498861223459243774 0 255 0
-4.08904504776000977 -64.605804443359375 0.498861223459243774 0 255 0
-4.20808506011962891 -64.6122589111328125 0.502205431461334229 0 255 0
-4.32854890823364258 -64.619293212890625 0.505011618137359619 0 255 0
-4.44956874847412109 -64.6245574951171875 0.508818745613098145 0 255 0
-4.44956874847412109 -64.6245574951171875 0.508818745613098145 0 255 0
-4.56412792205810547 -64.633087158203125 0.511100471019744873 0 255 0
-4.68238544464111328 -64.6390457153320312 0.513393044471740723 0 255 0
-4.68238544464111328 -64.6390457153320312 0.513393044471740723 0 255 0
-4.80643606185913086 -64.6465530395507812 0.51720196008682251 0 255 0
-4.93442726135253906 -64.6519317626953125 0.520389556884765625 0 255 0
-5.06544256210327148 -64.6605758666992188 0.523586750030517578 0 255 0
-5.06544256210327148 -64.6605758666992188 0.523586750030517578 0 255 0
-5.19172382354736328 -64.6677398681640625 0.527280509471893311 0 255 0
-5.31581211090087891 -64.6746826171875 0.530522584915161133 0 255 0
-5.31581211090087891 -64.6746826171875 0.530522584915161133 0 255 0
-5.44284629821777344 -64.6827850341796875 0.533445537090301514 0 255 0
-5.57349586486816406 -64.6907424926757812 0.537420213222503662 0 255 0
-5.69956302642822266 -64.6996994018554688 0.540691912174224854 0 255 0
-5.69956302642822266 -64.6996994018554688 0.540691912174224854 0 255 0
-5.82236814498901367 -64.7069473266601562 0.544200003147125244 0 255 0
-5.93958759307861328 -64.717041015625 0.548433303833007812 0 255 0
-5.93958759307861328 -64.717041015625 0.548433303833007812 0 255 0
-6.05818271636962891 -64.7251815795898438 0.551928579807281494 0 255 0
-6.18391799926757812 -64.7358474731445312 0.555228054523468018 0 255 0
-6.30376529693603516 -64.7452621459960938 0.559429347515106201 0 255 0
-6.30376529693603516 -64.7452621459960938 0.559429347515106201 0 255 0
-6.40797567367553711 -64.7546615600585938 0.562844276428222656 0 255 0
-6.50744724273681641 -64.765869140625 0.56625598669052124 0 255 0
-6.50744724273681641 -64.765869140625 0.56625598669052124 0 255 0
-6.61034679412841797 -64.77606201171875 0.569554686546325684 0 255 0
-6.71805763244628906 -64.7886810302734375 0.572743415832519531 0 255 0
-6.82108736038208008 -64.7989120483398438 0.576164305210113525 0 255 0
-6.82108736038208008 -64.7989120483398438 0.576164305210113525 0 255 0
-6.91930723190307617 -64.80902099609375 0.578457057476043701 0 255 0
-7.01520204544067383 -64.82159423828125 0.581945538520812988 0 255 0
-7.01520204544067383 -64.82159423828125 0.581945538520812988 0 255 0
-7.11546516418457031 -64.8332290649414062 0.584691464900970459 0 255 0
-7.22040414810180664 -64.8443450927734375 0.588278532028198242 0 255 0
-7.32056808471679688 -64.8574905395507812 0.590698480606079102 0 255 0
-7.32056808471679688 -64.8574905395507812 0.590698480606079102 0 255 0
-7.41693782806396484 -64.869171142578125 0.594303131103515625 0 255 0
-7.51163291931152344 -64.8813323974609375 0.597784638404846191 0 255 0
-7.51163291931152344 -64.8813323974609375 0.597784638404846191 0 255 0
-7.61368846893310547 -64.894683837890625 0.601285934448242188 0 255 0
-7.71909475326538086 -64.9061126708984375 0.60474085807800293 0 255 0
-7.81954050064086914 -64.920684814453125 0.608269155025482178 0 255 0
-7.81954050064086914 -64.920684814453125 0.608269155025482178 0 255 0
-7.91406965255737305 -64.9340057373046875 0.612118721008300781 0 255 0
-8.01097679138183594 -64.946563720703125 0.615098059177398682 0 255 0
-8.01097679138183594 -64.946563720703125 0.615098059177398682 0 255 0
-8.11357784271240234 -64.96038818359375 0.61907273530960083 0 255 0
-8.2174224853515625 -64.9732208251953125 0.622300982475280762 0 255 0
-8.31853199005126953 -64.9859771728515625 0.626265764236450195 0 255 0
-8.31853199005126953 -64.9859771728515625 0.626265764236450195 0 255 0
-8.41381740570068359 -65.001556396484375 0.629349768161773682 0 255 0
-8.51229286193847656 -65.0150985717773438 0.633552193641662598 0 255 0
-8.51229286193847656 -65.0150985717773438 0.633552193641662598 0 255 0
-8.61252975463867188 -65.0285873413085938 0.637415111064910889 0 255 0
-8.71644401550292969 -65.0436248779296875 0.641075432300567627 0 255 0
-8.81855487823486328 -65.0566482543945312 0.644690454006195068 0 255 0
-8.81855487823486328 -65.0566482543945312 0.644690454006195068 0 255 0
-8.91720676422119141 -65.073486328125 0.648032248020172119 0 255 0
-9.01404476165771484 -65.088104248046875 0.651819825172424316 0 255 0
-9.01404476165771484 -65.088104248046875 0.651819825172424316 0 255 0
-9.11261749267578125 -65.1017837524414062 0.655124425888061523 0 255 0
-9.21387100219726562 -65.1177444458007812 0.659116625785827637 0 255 0
-9.3149566650390625 -65.13299560546875 0.66225200891494751 0 255 0
-9.3149566650390625 -65.13299560546875 0.66225200891494751 0 255 0
-9.41510581970214844 -65.148162841796875 0.666459441184997559 0 255 0
-9.51292037963867188 -65.1653823852539062 0.669382870197296143 0 255 0
-9.51292037963867188 -65.1653823852539062 0.669382870197296143 0 255 0
-9.61303615570068359 -65.1802444458007812 0.673336565494537354 0 255 0
-9.71164035797119141 -65.1961746215820312 0.677362918853759766 0 255 0
-9.81104564666748047 -65.2125473022460938 0.681055605411529541 0 255 0
-9.81104564666748047 -65.2125473022460938 0.681055605411529541 0 255 0
-9.91333293914794922 -65.2277145385742188 0.68453747034072876 0 255 0
-10.0148258209228516 -65.2461166381835938 0.688087880611419678 0 255 0
-10.0148258209228516 -65.2461166381835938 0.688087880611419678 0 255 0
-10.1113805770874023 -65.2624053955078125 0.691810369491577148 0 255 0
-10.2079277038574219 -65.2779693603515625 0.694887459278106689 0 255 0
-10.3059720993041992 -65.2956771850585938 0.698616147041320801 0 255 0
-10.3059720993041992 -65.2956771850585938 0.698616147041320801 0 255 0
-10.4060220718383789 -65.3123626708984375 0.701433420181274414 0 255 0
-10.5019912719726562 -65.3290023803710938 0.705008447170257568 0 255 0
-10.5019912719726562 -65.3290023803710938 0.705008447170257568 0 255 0
-10.5904655456542969 -65.3483428955078125 0.707626700401306152 0 255 0
-10.6781368255615234 -65.3652572631835938 0.711441695690155029 0 255 0
-10.7705049514770508 -65.3826065063476562 0.714423179626464844 0 255 0
-10.7705049514770508 -65.3826065063476562 0.714423179626464844 0 255 0
-10.8676872253417969 -65.4005355834960938 0.717948257923126221 0 255 0
-10.9636764526367188 -65.4178466796875 0.720907390117645264 0 255 0
-10.9636764526367188 -65.4178466796875 0.720907390117645264 0 255 0
-11.0528640747070312 -65.4354324340820312 0.724559009075164795 0 255 0
-11.1407098770141602 -65.4550704956054688 0.727410972118377686 0 255 0
-11.2350273132324219 -65.47271728515625 0.731038749217987061 0 255 0
-11.2350273132324219 -65.47271728515625 0.731038749217987061 0 255 0
-11.3299531936645508 -65.49151611328125 0.734379768371582031 0 255 0
-11.4239139556884766 -65.5100860595703125 0.73793637752532959 0 255 0
-11.4239139556884766 -65.5100860595703125 0.73793637752532959 0 255 0
-11.516021728515625 -65.52838134765625 0.741124510765075684 0 255 0
-11.6075754165649414 -65.5470657348632812 0.744791507720947266 0 255 0
-11.6991596221923828 -65.5676498413085938 0.747466146945953369 0 255 0
-11.6991596221923828 -65.5676498413085938 0.747466146945953369 0 255 0
-11.7944107055664062 -65.5860214233398438 0.750965237617492676 0 255 0
-11.8859672546386719 -65.6056747436523438 0.75426328182220459 0 255 0
-11.8859672546386719 -65.6056747436523438 0.75426328182220459 0 255 0
-11.9766607284545898 -65.6262969970703125 0.75782853364944458 0 255 0
-12.0710277557373047 -65.6445770263671875 0.761029243469238281 0 255 0
-12.1670656204223633 -65.6653976440429688 0.764267683029174805 0 255 0
-12.1670656204223633 -65.6653976440429688 0.764267683029174805 0 255 0
-12.2595033645629883 -65.6862030029296875 0.766973197460174561 0 255 0
-12.3526668548583984 -65.7056198120117188 0.769806623458862305 0 255 0
-12.3526668548583984 -65.7056198120117188 0.769806623458862305 0 255 0
-12.4440689086914062 -65.7264022827148438 0.773059368133544922 0 255 0
-12.5383472442626953 -65.746856689453125 0.776227891445159912 0 255 0
-12.6385478973388672 -65.765838623046875 0.778945386409759521 0 255 0
-12.6385478973388672 -65.765838623046875 0.778945386409759521 0 255 0
-12.7367820739746094 -65.7891159057617188 0.781419634819030762 0 255 0
-12.8274774551391602 -65.8100051879882812 0.784143030643463135 0 255 0
-12.8274774551391602 -65.8100051879882812 0.784143030643463135 0 255 0
-12.9155807495117188 -65.8298187255859375 0.786408841609954834 0 255 0
-13.0106258392333984 -65.851318359375 0.789380192756652832 0 255 0
-13.1098728179931641 -65.873077392578125 0.791328907012939453 0 255 0
-13.1098728179931641 -65.873077392578125 0.791328907012939453 0 255 0
-13.2082357406616211 -65.8919296264648438 0.793175280094146729 0 255 0
-13.3021926879882812 -65.9133529663085938 0.794696152210235596 0 255 0
-13.3021926879882812 -65.9133529663085938 0.794696152210235596 0 255 0
-13.3923273086547852 -65.9364166259765625 0.797728300094604492 0 255 0
-13.4850645065307617 -65.9582672119140625 0.799976766109466553 0 255 0
-13.5809364318847656 -65.9814300537109375 0.802363097667694092 0 255 0
-13.5809364318847656 -65.9814300537109375 0.802363097667694092 0 255 0
-13.6747112274169922 -66.0014190673828125 0.803947925567626953 0 255 0
-13.7665605545043945 -66.0221633911132812 0.806738138198852539 0 255 0
-13.7665605545043945 -66.0221633911132812 0.806738138198852539 0 255 0
-13.8578672409057617 -66.0478515625 0.809139549732208252 0 255 0
-13.9614830017089844 -66.0708389282226562 0.812786281108856201 0 255 0
-14.0750551223754883 -66.0956039428710938 0.816190063953399658 0 255 0
-14.0750551223754883 -66.0956039428710938 0.816190063953399658 0 255 0
-14.1884765625 -66.1193084716796875 0.818964838981628418 0 255 0
-14.2907981872558594 -66.1420059204101562 0.822405636310577393 0 255 0
-14.2907981872558594 -66.1420059204101562 0.822405636310577393 0 255 0
-14.3875446319580078 -66.1679229736328125 0.825428366661071777 0 255 0
-14.4908695220947266 -66.1925201416015625 0.829979002475738525 0 255 0
-14.6014394760131836 -66.2158432006835938 0.833862423896789551 0 255 0
-14.6014394760131836 -66.2158432006835938 0.833862423896789551 0 255 0
-14.7112617492675781 -66.2407455444335938 0.837758719921112061 0 255 0
-14.8141012191772461 -66.2646942138671875 0.84140777587890625 0 255 0
-14.8141012191772461 -66.2646942138671875 0.84140777587890625 0 255 0
-14.9147739410400391 -66.2909927368164062 0.845498502254486084 0 255 0
-15.0200605392456055 -66.3168487548828125 0.849951088428497314 0 255 0
-15.1385698318481445 -66.3416976928710938 0.85349726676940918 0 255 0
-15.1385698318481445 -66.3416976928710938 0.85349726676940918 0 255 0
-15.2538366317749023 -66.3679580688476562 0.857865273952484131 0 255 0
-15.3596715927124023 -66.3917160034179688 0.862144708633422852 0 255 0
-15.3596715927124023 -66.3917160034179688 0.862144708633422852 0 255 0
-15.4631271362304688 -66.4181060791015625 0.865461349487304688 0 255 0
-15.5722532272338867 -66.444732666015625 0.869731307029724121 0 255 0
-15.6853523254394531 -66.4683151245117188 0.873434364795684814 0 255 0
-15.6853523254394531 -66.4683151245117188 0.873434364795684814 0 255 0
-15.7926273345947266 -66.491973876953125 0.877794921398162842 0 255 0
-15.8921070098876953 -66.513458251953125 0.881496012210845947 0 255 0
-15.8921070098876953 -66.513458251953125 0.881496012210845947 0 255 0
-15.9910964965820312 -66.536407470703125 0.88544774055480957 0 255 0
-16.0972557067871094 -66.5568771362304688 0.889923691749572754 0 255 0
-16.20806884765625 -66.5754165649414062 0.894120395183563232 0 255 0
-16.20806884765625 -66.5754165649414062 0.894120395183563232 0 255 0
-16.3120479583740234 -66.5945816040039062 0.898758232593536377 0 255 0
-16.412872314453125 -66.6117477416992188 0.902907252311706543 0 255 0
-16.412872314453125 -66.6117477416992188 0.902907252311706543 0 255 0
-16.5175342559814453 -66.629913330078125 0.907284975051879883 0 255 0
-16.6224231719970703 -66.6483612060546875 0.911063313484191895 0 255 0
-16.7192497253417969 -66.6679763793945312 0.915284454822540283 0 255 0
-16.7192497253417969 -66.6679763793945312 0.915284454822540283 0 255 0
-16.8023757934570312 -66.68902587890625 0.919584155082702637 0 255 0
-16.8868484497070312 -66.7090835571289062 0.923644423484802246 0 255 0
-16.8868484497070312 -66.7090835571289062 0.923644423484802246 0 255 0
-16.98004150390625 -66.729339599609375 0.92735522985458374 0 255 0
-17.0809001922607422 -66.7500686645507812 0.931227982044219971 0 255 0
-17.1750717163085938 -66.7701568603515625 0.935061395168304443 0 255 0
-17.1750717163085938 -66.7701568603515625 0.935061395168304443 0 255 0
-17.2612247467041016 -66.7907180786132812 0.939139366149902344 0 255 0
-17.3482990264892578 -66.8116226196289062 0.942945003509521484 0 255 0
-17.3482990264892578 -66.8116226196289062 0.942945003509521484 0 255 0
-17.4461822509765625 -66.8329696655273438 0.946500003337860107 0 255 0
-17.5475845336914062 -66.853912353515625 0.950310826301574707 0 255 0
-17.6412067413330078 -66.87554931640625 0.953270435333251953 0 255 0
-17.6412067413330078 -66.87554931640625 0.953270435333251953 0 255 0
-17.7294025421142578 -66.8975448608398438 0.957267880439758301 0 255 0
-17.8187637329101562 -66.9177703857421875 0.961392223834991455 0 255 0
-17.8187637329101562 -66.9177703857421875 0.961392223834991455 0 255 0
-17.9130649566650391 -66.9402847290039062 0.96532595157623291 0 255 0
-18.009796142578125 -66.9609832763671875 0.968243777751922607 0 255 0
-18.1046180725097656 -66.983795166015625 0.971726298332214355 0 255 0
-18.1046180725097656 -66.983795166015625 0.971726298332214355 0 255 0
-18.1933040618896484 -67.0062713623046875 0.974111437797546387 0 255 0
-18.2832851409912109 -67.0282974243164062 0.978262722492218018 0 255 0
-18.2832851409912109 -67.0282974243164062 0.978262722492218018 0 255 0
-18.3787708282470703 -67.0501632690429688 0.982118427753448486 0 255 0
-18.4756450653076172 -67.0729522705078125 0.985969603061676025 0 255 0
-18.5693645477294922 -67.095428466796875 0.988956034183502197 0 255 0
-18.5693645477294922 -67.095428466796875 0.988956034183502197 0 255 0
-18.6610431671142578 -67.1178436279296875 0.992145121097564697 0 255 0
-18.7529315948486328 -67.1411361694335938 0.994157850742340088 0 255 0
-18.7529315948486328 -67.1411361694335938 0.994157850742340088 0 255 0
-18.8480319976806641 -67.1653594970703125 0.998049736022949219 0 255 0
-18.9423427581787109 -67.187591552734375 1.00217783451080322 0 255 0
-19.0336894989013672 -67.2119522094726562 1.0060652494430542 0 255 0
-19.0336894989013672 -67.2119522094726562 1.0060652494430542 0 255 0
-19.1249237060546875 -67.2338333129882812 1.00899350643157959 0 255 0
-19.2200222015380859 -67.2593460083007812 1.0119776725769043 0 255 0
-19.2200222015380859 -67.2593460083007812 1.0119776725769043 0 255 0
-19.3142280578613281 -67.2831878662109375 1.01431620121002197 0 255 0
-19.406829833984375 -67.3064193725585938 1.0184788703918457 0 255 0
-19.4984416961669922 -67.3301315307617188 1.02236270904541016 0 255 0
-19.4984416961669922 -67.3301315307617188 1.02236270904541016 0 255 0
-19.5963134765625 -67.3547821044921875 1.02632820606231689 0 255 0
-19.6997489929199219 -67.3798828125 1.02953159809112549 0 255 0
-19.6997489929199219 -67.3798828125 1.02953159809112549 0 255 0
-19.8023471832275391 -67.4048614501953125 1.03291106224060059 0 255 0
-19.8992843627929688 -67.4290008544921875 1.03607964515686035 0 255 0
-19.9977931976318359 -67.4531707763671875 1.03905987739562988 0 255 0
-19.9977931976318359 -67.4531707763671875 1.03905987739562988 0 255 0
-20.1026287078857422 -67.4796295166015625 1.04253208637237549 0 255 0
-20.2139739990234375 -67.5047836303710938 1.04578101634979248 0 255 0
-20.2139739990234375 -67.5047836303710938 1.04578101634979248 0 255 0
-20.330169677734375 -67.5307235717773438 1.04985213279724121 0 255 0
-20.4402732849121094 -67.5564804077148438 1.05264961719512939 0 255 0
-20.5551490783691406 -67.5833053588867188 1.0560990571975708 0 255 0
-20.5551490783691406 -67.5833053588867188 1.0560990571975708 0 255 0
-20.6761722564697266 -67.6115951538085938 1.06001067161560059 0 255 0
-20.8014888763427734 -67.6397476196289062 1.0631711483001709 0 255 0
-20.8014888763427734 -67.6397476196289062 1.0631711483001709 0 255 0
-20.9222202301025391 -67.6687545776367188 1.06650805473327637 0 255 0
-21.0316181182861328 -67.6995162963867188 1.07003879547119141 0 255 0
-21.1379871368408203 -67.7298736572265625 1.07449615001678467 0 255 0
-21.1379871368408203 -67.7298736572265625 1.07449615001678467 0 255 0
-21.2515811920166016 -67.7614212036132812 1.07805562019348145 0 255 0
-21.3732547760009766 -67.7923049926757812 1.08178877830505371 0 255 0
-21.3732547760009766 -67.7923049926757812 1.08178877830505371 0 255 0
-21.4890518188476562 -67.82354736328125 1.08487164974212646 0 255 0
-21.5980358123779297 -67.8553009033203125 1.08911740779876709 0 255 0
-21.7054328918457031 -67.8860244750976562 1.09389960765838623 0 255 0
-21.7054328918457031 -67.8860244750976562 1.09389960765838623 0 255 0
-21.8182449340820312 -67.9171218872070312 1.09825873374938965 0 255 0
-21.9442653656005859 -67.9509429931640625 1.1023179292678833 0 255 0
-21.9442653656005859 -67.9509429931640625 1.1023179292678833 0 255 0
-22.06787109375 -67.9833221435546875 1.10562777519226074 0 255 0
-22.1808738708496094 -68.0142593383789062 1.10985696315765381 0 255 0
-22.2889976501464844 -68.0443878173828125 1.11439645290374756 0 255 0
-22.2889976501464844 -68.0443878173828125 1.11439645290374756 0 255 0
-22.4013080596923828 -68.0703887939453125 1.11870968341827393 0 255 0
-22.5270118713378906 -68.0976715087890625 1.12325549125671387 0 255 0
-22.5270118713378906 -68.0976715087890625 1.12325549125671387 0 255 0
-22.6498432159423828 -68.1202239990234375 1.12663257122039795 0 255 0
-22.7598667144775391 -68.1415939331054688 1.13068950176239014 0 255 0
-22.8684806823730469 -68.163787841796875 1.1350778341293335 0 255 0
-22.8684806823730469 -68.163787841796875 1.1350778341293335 0 255 0
-22.984039306640625 -68.1821670532226562 1.1397625207901001 0 255 0
-23.1072635650634766 -68.2024765014648438 1.14453303813934326 0 255 0
-23.1072635650634766 -68.2024765014648438 1.14453303813934326 0 255 0
-23.2242012023925781 -68.2245101928710938 1.14858388900756836 0 255 0
-23.3288593292236328 -68.2472152709960938 1.1531517505645752 0 255 0
-23.4364280700683594 -68.2708663940429688 1.15749561786651611 0 255 0
-23.4364280700683594 -68.2708663940429688 1.15749561786651611 0 255 0
-23.55352783203125 -68.2929153442382812 1.16237533092498779 0 255 0
-23.6743144989013672 -68.31622314453125 1.16722238063812256 0 255 0
-23.6743144989013672 -68.31622314453125 1.16722238063812256 0 255 0
-23.7892513275146484 -68.3399887084960938 1.17162108421325684 0 255 0
-23.8946132659912109 -68.3628997802734375 1.1768118143081665 0 255 0
-24.0024394989013672 -68.3875045776367188 1.18183040618896484 0 255 0
-24.0024394989013672 -68.3875045776367188 1.18183040618896484 0 255 0
-24.1199893951416016 -68.410400390625 1.18672263622283936 0 255 0
-24.2362117767333984 -68.4343414306640625 1.19196534156799316 0 255 0
-24.2362117767333984 -68.4343414306640625 1.19196534156799316 0 255 0
-24.3483066558837891 -68.4585113525390625 1.19642674922943115 0 255 0
-24.4533042907714844 -68.481903076171875 1.20229625701904297 0 255 0
-24.5612602233886719 -68.5070953369140625 1.20757591724395752 0 255 0
-24.5612602233886719 -68.5070953369140625 1.20757591724395752 0 255 0
-24.6774921417236328 -68.5299530029296875 1.2125164270401001 0 255 0
-24.7930641174316406 -68.55511474609375 1.21767842769622803 0 255 0
-24.7930641174316406 -68.55511474609375 1.21767842769622803 0 255 0
-24.9091358184814453 -68.5797805786132812 1.22329270839691162 0 255 0
-25.0147914886474609 -68.6042556762695312 1.22966921329498291 0 255 0
-25.1229228973388672 -68.6294784545898438 1.23522615432739258 0 255 0
-25.1229228973388672 -68.6294784545898438 1.23522615432739258 0 255 0
-25.2454185485839844 -68.6537017822265625 1.24064910411834717 0 255 0
-25.3668842315673828 -68.6763839721679688 1.24661016464233398 0 255 0
-25.3668842315673828 -68.6763839721679688 1.24661016464233398 0 255 0
-25.4848575592041016 -68.6990814208984375 1.25226151943206787 0 255 0
-25.5924949645996094 -68.7203598022460938 1.25916481018066406 0 255 0
-25.7031097412109375 -68.7418136596679688 1.26525044441223145 0 255 0
-25.7031097412109375 -68.7418136596679688 1.26525044441223145 0 255 0
-25.822357177734375 -68.7633895874023438 1.2710723876953125 0 255 0
-25.941375732421875 -68.7808837890625 1.27656567096710205 0 255 0
-25.941375732421875 -68.7808837890625 1.27656567096710205 0 255 0
-26.0564136505126953 -68.8000564575195312 1.28225803375244141 0 255 0
-26.1654777526855469 -68.8174591064453125 1.2888636589050293 0 255 0
-26.2743740081787109 -68.8356552124023438 1.2952653169631958 0 255 0
-26.2743740081787109 -68.8356552124023438 1.2952653169631958 0 255 0
-26.3951930999755859 -68.852996826171875 1.30136895179748535 0 255 0
-26.5120258331298828 -68.8689346313476562 1.30644440650939941 0 255 0
-26.5120258331298828 -68.8689346313476562 1.30644440650939941 0 255 0
-26.6174736022949219 -68.8879165649414062 1.31079566478729248 0 255 0
-26.7206859588623047 -68.9075241088867188 1.31718385219573975 0 255 0
-26.8282260894775391 -68.9281997680664062 1.32305729389190674 0 255 0
-26.8282260894775391 -68.9281997680664062 1.32305729389190674 0 255 0
-26.9454593658447266 -68.9488525390625 1.32876896858215332 0 255 0
-27.0587234497070312 -68.9690322875976562 1.33340156078338623 0 255 0
-27.0587234497070312 -68.9690322875976562 1.33340156078338623 0 255 0
-27.1637897491455078 -68.9898300170898438 1.33755981922149658 0 255 0
-27.2661323547363281 -69.0105743408203125 1.34351861476898193 0 255 0
-27.3735027313232422 -69.030853271484375 1.34910142421722412 0 255 0
-27.3735027313232422 -69.030853271484375 1.34910142421722412 0 255 0
-27.4885787963867188 -69.0521926879882812 1.35477983951568604 0 255 0
-27.6000747680664062 -69.0726165771484375 1.3598790168762207 0 255 0
-27.6000747680664062 -69.0726165771484375 1.3598790168762207 0 255 0
-27.70489501953125 -69.0937271118164062 1.36511588096618652 0 255 0
-27.8073902130126953 -69.1144790649414062 1.37180626392364502 0 255 0
-27.9229412078857422 -69.1359024047851562 1.37734365463256836 0 255 0
-27.9229412078857422 -69.1359024047851562 1.37734365463256836 0 255 0
-28.0517826080322266 -69.1585617065429688 1.38317310810089111 0 255 0
-28.1714515686035156 -69.1800384521484375 1.38860714435577393 0 255 0
-28.1714515686035156 -69.1800384521484375 1.38860714435577393 0 255 0
-28.2790431976318359 -69.2039031982421875 1.39403676986694336 0 255 0
-28.3851814270019531 -69.2291412353515625 1.40028738975524902 0 255 0
-28.5022621154785156 -69.2529830932617188 1.40522897243499756 0 255 0
-28.5022621154785156 -69.2529830932617188 1.40522897243499756 0 255 0
-28.6255226135253906 -69.2800827026367188 1.41039633750915527 0 255 0
-28.7410259246826172 -69.3053131103515625 1.41593420505523682 0 255 0
-28.7410259246826172 -69.3053131103515625 1.41593420505523682 0 255 0
-28.8441257476806641 -69.330657958984375 1.42128467559814453 0 255 0
-28.9513168334960938 -69.3566436767578125 1.42666220664978027 0 255 0
-29.0680904388427734 -69.3809890747070312 1.43130254745483398 0 255 0
-29.0680904388427734 -69.3809890747070312 1.43130254745483398 0 255 0
-29.1853446960449219 -69.4066390991210938 1.43665838241577148 0 255 0
-29.2967453002929688 -69.4296493530273438 1.44277644157409668 0 255 0
-29.2967453002929688 -69.4296493530273438 1.44277644157409668 0 255 0
-29.3965263366699219 -69.4515609741210938 1.44779491424560547 0 255 0
-29.4972610473632812 -69.4763870239257812 1.45283782482147217 0 255 0
-29.6049404144287109 -69.4955062866210938 1.4578021764755249 0 255 0
-29.6049404144287109 -69.4955062866210938 1.4578021764755249 0 255 0
-29.7131977081298828 -69.5173263549804688 1.46345460414886475 0 255 0
-29.8187808990478516 -69.53662109375 1.46907997131347656 0 255 0
-29.8187808990478516 -69.53662109375 1.46907997131347656 0 255 0
-29.9178009033203125 -69.5568084716796875 1.47467780113220215 0 255 0
-30.0194263458251953 -69.5796279907226562 1.47985363006591797 0 255 0
-30.1219196319580078 -69.598968505859375 1.48498153686523438 0 255 0
-30.1219196319580078 -69.598968505859375 1.48498153686523438 0 255 0
-30.2198543548583984 -69.6216888427734375 1.49116122722625732 0 255 0
-30.3104114532470703 -69.6441116333007812 1.49660193920135498 0 255 0
-30.3104114532470703 -69.6441116333007812 1.49660193920135498 0 255 0
-30.4024143218994141 -69.6689682006835938 1.50181841850280762 0 255 0
-30.4963836669921875 -69.6948013305664062 1.50759243965148926 0 255 0
-30.5894641876220703 -69.7227630615234375 1.512748122215271 0 255 0
-30.5894641876220703 -69.7227630615234375 1.512748122215271 0 255 0
-30.6843719482421875 -69.7487030029296875 1.51918900012969971 0 255 0
-30.7763137817382812 -69.777679443359375 1.52441859245300293 0 255 0
-30.7763137817382812 -69.777679443359375 1.52441859245300293 0 255 0
-30.8681468963623047 -69.8068618774414062 1.52999663352966309 0 255 0
-30.9575271606445312 -69.8380889892578125 1.53535139560699463 0 255 0
-31.0473594665527344 -69.869873046875 1.54131650924682617 0 255 0
-31.0473594665527344 -69.869873046875 1.54131650924682617 0 255 0
-31.1384830474853516 -69.9013137817382812 1.54697179794311523 0 255 0
-31.2305107116699219 -69.9342117309570312 1.55313265323638916 0 255 0
-31.2305107116699219 -69.9342117309570312 1.55313265323638916 0 255 0
-31.3216018676757812 -69.9613189697265625 1.55820238590240479 0 255 0
-31.4106521606445312 -69.9905624389648438 1.56382429599761963 0 255 0
-31.5008144378662109 -70.020843505859375 1.57020878791809082 0 255 0
-31.5008144378662109 -70.020843505859375 1.57020878791809082 0 255 0
-31.5890693664550781 -70.0489654541015625 1.57714223861694336 0 255 0
-31.6774978637695312 -70.0765838623046875 1.58306825160980225 0 255 0
-31.6774978637695312 -70.0765838623046875 1.58306825160980225 0 255 0
-31.7669658660888672 -70.1009063720703125 1.59026515483856201 0 255 0
-31.8556556701660156 -70.124847412109375 1.59640121459960938 0 255 0
-31.9438133239746094 -70.1486968994140625 1.6028900146484375 0 255 0
-31.9438133239746094 -70.1486968994140625 1.6028900146484375 0 255 0
-32.0344886779785156 -70.1722488403320312 1.60996913909912109 0 255 0
-32.1251678466796875 -70.1949996948242188 1.61764788627624512 0 255 0
-32.1251678466796875 -70.1949996948242188 1.61764788627624512 0 255 0
-32.2159919738769531 -70.2164764404296875 1.62440657615661621 0 255 0
-32.3074531555175781 -70.2368927001953125 1.63221085071563721 0 255 0
-32.3972511291503906 -70.2549591064453125 1.63860630989074707 0 255 0
-32.3972511291503906 -70.2549591064453125 1.63860630989074707 0 255 0
-32.4890670776367188 -70.2726287841796875 1.64517605304718018 0 255 0
-32.58404541015625 -70.2906036376953125 1.65218997001647949 0 255 0
-32.58404541015625 -70.2906036376953125 1.65218997001647949 0 255 0
-32.6757087707519531 -70.308807373046875 1.65965032577514648 0 255 0
-32.7670936584472656 -70.3254547119140625 1.6658625602722168 0 255 0
-32.8591957092285156 -70.3405075073242188 1.67344999313354492 0 255 0
-32.8591957092285156 -70.3405075073242188 1.67344999313354492 0 255 0
-32.9482307434082031 -70.3551788330078125 1.67953944206237793 0 255 0
-33.0378532409667969 -70.3680953979492188 1.68597376346588135 0 255 0
-33.0378532409667969 -70.3680953979492188 1.68597376346588135 0 255 0
-33.1286239624023438 -70.3806838989257812 1.69278466701507568 0 255 0
-33.2175636291503906 -70.3937759399414062 1.69983601570129395 0 255 0
-33.30694580078125 -70.4052810668945312 1.70611989498138428 0 255 0
-33.30694580078125 -70.4052810668945312 1.70611989498138428 0 255 0
-33.3963699340820312 -70.4159622192382812 1.7134014368057251 0 255 0
-33.479400634765625 -70.4264755249023438 1.71940648555755615 0 255 0
-33.479400634765625 -70.4264755249023438 1.71940648555755615 0 255 0
-33.5614433288574219 -70.4370574951171875 1.7265695333480835 0 255 0
-33.6458244323730469 -70.4479751586914062 1.73327159881591797 0 255 0
-33.7306480407714844 -70.4620361328125 1.74026942253112793 0 255 0
-33.7306480407714844 -70.4620361328125 1.74026942253112793 0 255 0
-33.8124961853027344 -70.4759674072265625 1.74673008918762207 0 255 0
-33.8928642272949219 -70.4908905029296875 1.75318276882171631 0 255 0
-33.8928642272949219 -70.4908905029296875 1.75318276882171631 0 255 0
-33.9743919372558594 -70.5039215087890625 1.76040387153625488 0 255 0
-34.0580978393554688 -70.5165481567382812 1.76733684539794922 0 255 0
-34.1420440673828125 -70.5294265747070312 1.77409136295318604 0 255 0
-34.1420440673828125 -70.5294265747070312 1.77409136295318604 0 255 0
-34.2257881164550781 -70.5421676635742188 1.78069555759429932 0 255 0
-34.3086318969726562 -70.556854248046875 1.78794229030609131 0 255 0
-34.3086318969726562 -70.556854248046875 1.78794229030609131 0 255 0
-34.3945884704589844 -70.570068359375 1.79497182369232178 0 255 0
-34.4844627380371094 -70.5841522216796875 1.8026195764541626 0 255 0
-34.5711288452148438 -70.596832275390625 1.80906128883361816 0 255 0
-34.5711288452148438 -70.596832275390625 1.80906128883361816 0 255 0
-34.6555290222167969 -70.6093978881835938 1.81656754016876221 0 255 0
-34.7432670593261719 -70.6215972900390625 1.82464742660522461 0 255 0
-34.7432670593261719 -70.6215972900390625 1.82464742660522461 0 255 0
-34.8328323364257812 -70.6355743408203125 1.83313179016113281 0 255 0
-34.9289703369140625 -70.6481170654296875 1.84075188636779785 0 255 0
-35.0336112976074219 -70.6613311767578125 1.84930968284606934 0 255 0
-35.0336112976074219 -70.6613311767578125 1.84930968284606934 0 255 0
-35.1335487365722656 -70.67236328125 1.85664200782775879 0 255 0
-35.2309188842773438 -70.6847991943359375 1.86499512195587158 0 255 0
-35.2309188842773438 -70.6847991943359375 1.86499512195587158 0 255 0
-35.3319244384765625 -70.6969680786132812 1.87369930744171143 0 255 0
-35.4419212341308594 -70.7090530395507812 1.88285577297210693 0 255 0
-35.556854248046875 -70.720855712890625 1.89067471027374268 0 255 0
-35.556854248046875 -70.720855712890625 1.89067471027374268 0 255 0
-35.6642951965332031 -70.7334060668945312 1.89873802661895752 0 255 0
-35.7657737731933594 -70.746002197265625 1.90669643878936768 0 255 0
-35.7657737731933594 -70.746002197265625 1.90669643878936768 0 255 0
-35.8698310852050781 -70.7573013305664062 1.91307783126831055 0 255 0
-35.9842529296875 -70.7698822021484375 1.9196169376373291 0 255 0
-36.0994415283203125 -70.7824478149414062 1.92552280426025391 0 255 0
-36.0994415283203125 -70.7824478149414062 1.92552280426025391 0 255 0
-36.2091712951660156 -70.7952651977539062 1.93249094486236572 0 255 0
-36.3112602233886719 -70.8072586059570312 1.9384150505065918 0 255 0
-36.3112602233886719 -70.8072586059570312 1.9384150505065918 0 255 0
-36.4150848388671875 -70.8192291259765625 1.94349777698516846 0 255 0
-36.52508544921875 -70.8321990966796875 1.94895303249359131 0 255 0
-36.6313323974609375 -70.8452529907226562 1.95434439182281494 0 255 0
-36.6313323974609375 -70.8452529907226562 1.95434439182281494 0 255 0
-36.7364234924316406 -70.8600082397460938 1.96059191226959229 0 255 0
-36.8380393981933594 -70.8729171752929688 1.96553695201873779 0 255 0
-36.8380393981933594 -70.8729171752929688 1.96553695201873779 0 255 0
-36.9430999755859375 -70.8859939575195312 1.97159278392791748 0 255 0
-37.0512657165527344 -70.8995742797851562 1.97795820236206055 0 255 0
-37.1571197509765625 -70.9140472412109375 1.98452961444854736 0 255 0
-37.1571197509765625 -70.9140472412109375 1.98452961444854736 0 255 0
-37.2612380981445312 -70.92938232421875 1.99009299278259277 0 255 0
-37.366058349609375 -70.9435195922851562 1.9967886209487915 0 255 0
-37.366058349609375 -70.9435195922851562 1.9967886209487915 0 255 0
-37.47222900390625 -70.9565048217773438 2.00358414649963379 0 255 0
-37.580169677734375 -70.9691696166992188 2.00954413414001465 0 255 0
-37.6894493103027344 -70.9840087890625 2.01549577713012695 0 255 0
-37.6894493103027344 -70.9840087890625 2.01549577713012695 0 255 0
-37.7946243286132812 -70.9995040893554688 2.0207984447479248 0 255 0
-37.9016952514648438 -71.014617919921875 2.02776861190795898 0 255 0
-37.9016952514648438 -71.014617919921875 2.02776861190795898 0 255 0
-38.0064201354980469 -71.0279464721679688 2.03331255912780762 0 255 0
-38.1145401000976562 -71.0413818359375 2.03865838050842285 0 255 0
-38.2216262817382812 -71.0566253662109375 2.04440712928771973 0 255 0
-38.2216262817382812 -71.0566253662109375 2.04440712928771973 0 255 0
-38.3245429992675781 -71.0720901489257812 2.05013871192932129 0 255 0
-38.430572509765625 -71.0885086059570312 2.05628252029418945 0 255 0
-38.430572509765625 -71.0885086059570312 2.05628252029418945 0 255 0
-38.5366477966308594 -71.1026840209960938 2.06169605255126953 0 255 0
-38.64495849609375 -71.11663818359375 2.06754016876220703 0 255 0
-38.7514610290527344 -71.1318283081054688 2.07328677177429199 0 255 0
-38.7514610290527344 -71.1318283081054688 2.07328677177429199 0 255 0
-38.8541831970214844 -71.1485137939453125 2.07937192916870117 0 255 0
-38.9614601135253906 -71.1657257080078125 2.08479881286621094 0 255 0
-38.9614601135253906 -71.1657257080078125 2.08479881286621094 0 255 0
-39.0697708129882812 -71.1811904907226562 2.09081625938415527 0 255 0
-39.1769485473632812 -71.1967239379882812 2.09696340560913086 0 255 0
-39.2809257507324219 -71.2119903564453125 2.10254430770874023 0 255 0
-39.2809257507324219 -71.2119903564453125 2.10254430770874023 0 255 0
-39.3865089416503906 -71.2294464111328125 2.10846209526062012 0 255 0
-39.4922027587890625 -71.2467498779296875 2.11352396011352539 0 255 0
-39.4922027587890625 -71.2467498779296875 2.11352396011352539 0 255 0
-39.6009597778320312 -71.2643661499023438 2.12051677703857422 0 255 0
-39.70867919921875 -71.2797775268554688 2.12596583366394043 0 255 0
-39.8141746520996094 -71.2953414916992188 2.13114428520202637 0 255 0
-39.8141746520996094 -71.2953414916992188 2.13114428520202637 0 255 0
-39.9221878051757812 -71.3131484985351562 2.13689565658569336 0 255 0
-40.0271797180175781 -71.3307876586914062 2.1424260139465332 0 255 0
-40.0271797180175781 -71.3307876586914062 2.1424260139465332 0 255 0
-40.1359367370605469 -71.349395751953125 2.14842700958251953 0 255 0
-40.2434577941894531 -71.3649826049804688 2.15334129333496094 0 255 0
-40.3505058288574219 -71.3824005126953125 2.15883374214172363 0 255 0
-40.3505058288574219 -71.3824005126953125 2.15883374214172363 0 255 0
-40.4564170837402344 -71.39959716796875 2.16474246978759766 0 255 0
-40.5613174438476562 -71.4178543090820312 2.17084360122680664 0 255 0
-40.5613174438476562 -71.4178543090820312 2.17084360122680664 0 255 0
-40.6690750122070312 -71.4366226196289062 2.17600035667419434 0 255 0
-40.7771759033203125 -71.4536209106445312 2.18152427673339844 0 255 0
-40.8839073181152344 -71.4711685180664062 2.18732452392578125 0 255 0
-40.8839073181152344 -71.4711685180664062 2.18732452392578125 0 255 0
-40.9893074035644531 -71.4880599975585938 2.19249916076660156 0 255 0
-41.0965538024902344 -71.50665283203125 2.19793295860290527 0 255 0
-41.0965538024902344 -71.50665283203125 2.19793295860290527 0 255 0
-41.2039451599121094 -71.52545166015625 2.20272517204284668 0 255 0
-41.313323974609375 -71.5446243286132812 2.20913600921630859 0 255 0
-41.41876220703125 -71.5618209838867188 2.21437859535217285 0 255 0
-41.41876220703125 -71.5618209838867188 2.21437859535217285 0 255 0
-41.5246658325195312 -71.5789337158203125 2.21956181526184082 0 255 0
-41.6353302001953125 -71.5985946655273438 2.22459530830383301 0 255 0
-41.6353302001953125 -71.5985946655273438 2.22459530830383301 0 255 0
-41.7503852844238281 -71.6193618774414062 2.22907233238220215 0 255 0
-41.86370849609375 -71.636688232421875 2.23575520515441895 0 255 0
-41.9709968566894531 -71.6549606323242188 2.24141979217529297 0 255 0
-41.9709968566894531 -71.6549606323242188 2.24141979217529297 0 255 0
-42.0798110961914062 -71.6740798950195312 2.24736213684082031 0 255 0
-42.1908416748046875 -71.6955032348632812 2.25425076484680176 0 255 0
-42.1908416748046875 -71.6955032348632812 2.25425076484680176 0 255 0
-42.3044281005859375 -71.714141845703125 2.26102852821350098 0 255 0
-42.4179000854492188 -71.7346038818359375 2.26731276512145996 0 255 0
-42.5259933471679688 -71.7535781860351562 2.2724306583404541 0 255 0
-42.5259933471679688 -71.7535781860351562 2.2724306583404541 0 255 0
-42.6359519958496094 -71.7723464965820312 2.27875828742980957 0 255 0
-42.7465019226074219 -71.7916107177734375 2.28516793251037598 0 255 0
-42.7465019226074219 -71.7916107177734375 2.28516793251037598 0 255 0
-42.8586502075195312 -71.8127365112304688 2.29198598861694336 0 255 0
-42.9721870422363281 -71.8336410522460938 2.29831957817077637 0 255 0
-43.0813217163085938 -71.8534469604492188 2.30418038368225098 0 255 0
-43.0813217163085938 -71.8534469604492188 2.30418038368225098 0 255 0
-43.1923255920410156 -71.8728485107421875 2.31086874008178711 0 255 0
-43.3047447204589844 -71.8931961059570312 2.31694245338439941 0 255 0
-43.3047447204589844 -71.8931961059570312 2.31694245338439941 0 255 0
-43.4188613891601562 -71.9144821166992188 2.32353639602661133 0 255 0
-43.5343284606933594 -71.9363861083984375 2.32930231094360352 0 255 0
-43.6505661010742188 -71.956451416015625 2.33526086807250977 0 255 0
-43.6505661010742188 -71.956451416015625 2.33526086807250977 0 255 0
-43.7699241638183594 -71.97637939453125 2.34197425842285156 0 255 0
-43.8867263793945312 -71.9976348876953125 2.34829807281494141 0 255 0
-43.8867263793945312 -71.9976348876953125 2.34829807281494141 0 255 0
-44.0023345947265625 -72.018951416015625 2.3547215461730957 0 255 0
-44.1186332702636719 -72.041595458984375 2.36020970344543457 0 255 0
-44.2354660034179688 -72.0612564086914062 2.36598920822143555 0 255 0
-44.2354660034179688 -72.0612564086914062 2.36598920822143555 0 255 0
-44.3533897399902344 -72.0829391479492188 2.37248539924621582 0 255 0
-44.4741096496582031 -72.104095458984375 2.37897348403930664 0 255 0
-44.4741096496582031 -72.104095458984375 2.37897348403930664 0 255 0
-44.5906105041503906 -72.1263885498046875 2.3852531909942627 0 255 0
-44.7095069885253906 -72.1494369506835938 2.39095306396484375 0 255 0
-44.8274345397949219 -72.1711654663085938 2.39621329307556152 0 255 0
-44.8274345397949219 -72.1711654663085938 2.39621329307556152 0 255 0
-44.9459304809570312 -72.19219970703125 2.40308308601379395 0 255 0
-45.0629158020019531 -72.2148056030273438 2.4097137451171875 0 255 0
-45.0629158020019531 -72.2148056030273438 2.4097137451171875 0 255 0
-45.1791343688964844 -72.23797607421875 2.41681671142578125 0 255 0
-45.299774169921875 -72.2619476318359375 2.42322492599487305 0 255 0
-45.4169692993164062 -72.2832183837890625 2.42855954170227051 0 255 0
-45.4169731140136719 -72.2832183837890625 2.42856740951538086 0 255 0
-45.5349311828613281 -72.305999755859375 2.43493890762329102 0 255 0
-45.6594314575195312 -72.3299636840820312 2.4421083927154541 0 255 0
-45.6594314575195312 -72.3299636840820312 2.4421083927154541 0 255 0
-45.7818222045898438 -72.3514328002929688 2.44853901863098145 0 255 0
-45.8878250122070312 -72.3752059936523438 2.45506930351257324 0 255 0
-45.9668960571289062 -72.394622802734375 2.46080327033996582 0 255 0
-45.9668960571289062 -72.394622802734375 2.46080327033996582 0 255 0
-46.0441551208496094 -72.4169845581054688 2.46763086318969727 0 255 0
-46.1359519958496094 -72.4362030029296875 2.4742121696472168 0 255 0
-46.1359519958496094 -72.4362030029296875 2.4742121696472168 0 255 0
-46.237701416015625 -72.4561386108398438 2.48093295097351074 0 255 0
-46.3282203674316406 -72.4734878540039062 2.48666286468505859 0 255 0
-46.4075813293457031 -72.4930572509765625 2.49341392517089844 0 255 0
-46.4075813293457031 -72.4930572509765625 2.49341392517089844 0 255 0
-46.4897613525390625 -72.5096893310546875 2.50089478492736816 0 255 0
-46.588531494140625 -72.5228424072265625 2.50780057907104492 0 255 0
-46.588531494140625 -72.5228424072265625 2.50780057907104492 0 255 0
-46.6917572021484375 -72.5347900390625 2.51415419578552246 0 255 0
-46.7888679504394531 -72.5463485717773438 2.52060675621032715 0 255 0
-46.8787994384765625 -72.5570526123046875 2.52701783180236816 0 255 0
-46.8787994384765625 -72.5570526123046875 2.52701783180236816 0 255 0
-46.9765853881835938 -72.56793212890625 2.53388810157775879 0 255 0
-47.0809211730957031 -72.5745697021484375 2.5402367115020752 0 255 0
-47.0809211730957031 -72.5745697021484375 2.5402367115020752 0 255 0
-47.1841316223144531 -72.5783920288085938 2.54703211784362793 0 255 0
-47.2814140319824219 -72.5837020874023438 2.55344486236572266 0 255 0
-47.3840560913085938 -72.5863571166992188 2.56010651588439941 0 255 0
-47.3840560913085938 -72.5863571166992188 2.56010651588439941 0 255 0
-47.49334716796875 -72.5864944458007812 2.56573772430419922 0 255 0
-47.6021881103515625 -72.5861282348632812 2.57330894470214844 0 255 0
-47.6021881103515625 -72.5861282348632812 2.57330894470214844 0 255 0
-47.7031898498535156 -72.5832595825195312 2.57925605773925781 0 255 0
-47.8034477233886719 -72.5804443359375 2.58521533012390137 0 255 0
-47.909332275390625 -72.5771484375 2.59078311920166016 0 255 0
-47.909332275390625 -72.5771484375 2.59078311920166016 0 255 0
-48.0165557861328125 -72.5683975219726562 2.59708023071289062 0 255 0
-48.1233558654785156 -72.5595855712890625 2.60428142547607422 0 255 0
-48.1233558654785156 -72.5595855712890625 2.60428142547607422 0 255 0
-48.2233390808105469 -72.55242919921875 2.60992002487182617 0 255 0
-48.3211784362792969 -72.5431900024414062 2.61630988121032715 0 255 0
-48.4238395690917969 -72.5320510864257812 2.62221717834472656 0 255 0
-48.4238395690917969 -72.5320510864257812 2.62221717834472656 0 255 0
-48.5281295776367188 -72.5186538696289062 2.62830519676208496 0 255 0
-48.6317024230957031 -72.5033111572265625 2.6340639591217041 0 255 0
-48.6317024230957031 -72.5033111572265625 2.6340639591217041 0 255 0
-48.7320823669433594 -72.4892196655273438 2.64021801948547363 0 255 0
-48.8284225463867188 -72.4725799560546875 2.64699912071228027 0 255 0
-48.9303665161132812 -72.4524917602539062 2.65308928489685059 0 255 0
-48.9303665161132812 -72.4524917602539062 2.65308928489685059 0 255 0
-49.0371780395507812 -72.43072509765625 2.6591644287109375 0 255 0
-49.14434814453125 -72.40643310546875 2.66448545455932617 0 255 0
-49.14434814453125 -72.40643310546875 2.66448545455932617 0 255 0
-49.2497940063476562 -72.3794708251953125 2.6712946891784668 0 255 0
-49.3520927429199219 -72.3538894653320312 2.67798495292663574 0 255 0
-49.4559402465820312 -72.3273544311523438 2.68385839462280273 0 255 0
-49.4559402465820312 -72.3273544311523438 2.68385839462280273 0 255 0
-49.5647468566894531 -72.3015213012695312 2.69051504135131836 0 255 0
-49.670013427734375 -72.2774887084960938 2.69582438468933105 0 255 0
-49.670013427734375 -72.2774887084960938 2.69582438468933105 0 255 0
-49.77227783203125 -72.256134033203125 2.70253276824951172 0 255 0
-49.8762741088867188 -72.2339706420898438 2.7092437744140625 0 255 0
-49.9840965270996094 -72.209808349609375 2.71532154083251953 0 255 0
-49.9840965270996094 -72.209808349609375 2.71532154083251953 0 255 0
-50.0956611633300781 -72.1848068237304688 2.72187423706054688 0 255 0
-50.2058601379394531 -72.1601104736328125 2.72725486755371094 0 255 0
-50.2058601379394531 -72.1601104736328125 2.72725486755371094 0 255 0
-50.3106307983398438 -72.137725830078125 2.73455333709716797 0 255 0
-50.4171104431152344 -72.1147994995117188 2.74170160293579102 0 255 0
-50.527740478515625 -72.089996337890625 2.74745774269104004 0 255 0
-50.527740478515625 -72.089996337890625 2.74745774269104004 0 255 0
-50.6388092041015625 -72.0657577514648438 2.75411748886108398 0 255 0
-50.750335693359375 -72.0412979125976562 2.75980114936828613 0 255 0
-50.750335693359375 -72.0412979125976562 2.75980114936828613 0 255 0
-50.8564949035644531 -72.0180130004882812 2.76675534248352051 0 255 0
-50.9620742797851562 -71.9959030151367188 2.77339696884155273 0 255 0
-51.070159912109375 -71.972625732421875 2.779998779296875 0 255 0
-51.070159912109375 -71.972625732421875 2.779998779296875 0 255 0
-51.1793861389160156 -71.9492111206054688 2.78660321235656738 0 255 0
-51.2898788452148438 -71.9250411987304688 2.79238486289978027 0 255 0
-51.2898788452148438 -71.9250411987304688 2.79238486289978027 0 255 0
-51.3928565979003906 -71.9031906127929688 2.79900741577148438 0 255 0
-51.4834442138671875 -71.8876113891601562 2.80631279945373535 0 255 0
-51.5666999816894531 -71.874237060546875 2.81285238265991211 0 255 0
-51.5666999816894531 -71.874237060546875 2.81285238265991211 0 255 0
-51.6610641479492188 -71.8573837280273438 2.81930112838745117 0 255 0
-51.7599296569824219 -71.8387222290039062 2.82500743865966797 0 255 0
-51.7599296569824219 -71.8387222290039062 2.82500743865966797 0 255 0
-51.8540115356445312 -71.819793701171875 2.83200192451477051 0 255 0
-51.9378700256347656 -71.807098388671875 2.83820629119873047 0 255 0
-52.0222663879394531 -71.795196533203125 2.84524869918823242 0 255 0
